# .PCD v0.7 - Point Cloud Data file format
VERSION 0.7
FIELDS x y z rgb
SIZE 4 4 4 4
TYPE F F F U
COUNT 1 1 1 1
WIDTH 1316
HEIGHT 1
VIEWPOINT 0 0 0 1 0 0 0
POINTS 1316
DATA ascii
-3.061224 -10.000000 -0.062314 6579300
-3.061224 -9.591837 -0.055548 6579300
-3.061224 -9.183673 -0.063739 6579300
-3.061224 -8.775510 0.118902 6579300
-3.061224 -8.367347 0.142050 6579300
-3.061224 -7.959184 -0.057075 6579300
-3.061224 -7.551020 -0.083236 6579300
-3.061224 -7.142857 0.047142 6579300
-3.061224 -6.734694 -0.055222 6579300
-3.061224 -6.326531 0.063293 6579300
-3.061224 -5.918367 0.020292 6579300
-3.061224 -5.510204 -0.151574 6579300
-3.061224 -5.102041 0.154751 6579300
-3.061224 -4.693878 0.179588 6579300
-3.061224 -4.285714 -0.061279 6579300
-3.061224 -3.877551 -0.038770 6579300
-3.061224 -3.469388 0.028587 6579300
-3.061224 -3.061224 0.033446 6579300
-3.061224 -2.653061 0.065854 6579300
-3.061224 -2.244898 0.201020 6579300
-3.061224 -1.836735 -0.017695 6579300
-3.061224 -1.428571 -0.079830 6579300
-3.061224 -1.020408 -0.137932 6579300
-3.061224 -0.612245 -0.073093 6579300
-3.061224 -0.204082 -0.003313 6579300
-3.061224 0.204082 0.179456 6579300
-3.061224 0.612245 -0.051761 6579300
-3.061224 1.020408 0.022379 6579300
-3.061224 1.428571 -0.001642 6579300
-3.061224 1.836735 0.118839 6579300
-3.061224 2.244898 0.252693 6579300
-3.061224 2.653061 -0.053087 6579300
-3.061224 3.061224 -0.048944 6579300
-3.061224 3.469388 0.104416 6579300
-3.061224 3.877551 0.068189 6579300
-3.061224 4.285714 0.184671 6579300
-3.061224 4.693878 0.058393 6579300
-3.061224 5.102041 -0.035929 6579300
-3.061224 5.510204 0.059065 6579300
-3.061224 5.918367 0.110870 6579300
-3.061224 6.326531 0.082048 6579300
-3.061224 6.734694 0.050727 6579300
-3.061224 7.142857 0.106667 6579300
-3.061224 7.551020 0.116930 6579300
-3.061224 7.959184 0.138216 6579300
-3.061224 8.367347 0.064871 6579300
-3.061224 8.775510 -0.016712 6579300
-3.061224 9.183673 0.014671 6579300
-3.061224 9.591837 0.120651 6579300
-3.061224 10.000000 -0.081694 6579300
-2.653061 -10.000000 0.036867 6579300
-2.653061 -9.591837 -0.039334 6579300
-2.653061 -9.183673 0.002874 6579300
-2.653061 -8.775510 0.127845 6579300
-2.653061 -8.367347 0.019110 6579300
-2.653061 -7.959184 0.004644 6579300
-2.653061 -7.551020 -0.135986 6579300
-2.653061 -7.142857 0.074625 6579300
-2.653061 -6.734694 0.064548 6579300
-2.653061 -6.326531 0.216325 6579300
-2.653061 -5.918367 -0.030778 6579300
-2.653061 -5.510204 0.021915 6579300
-2.653061 -5.102041 0.024938 6579300
-2.653061 -4.693878 0.157745 6579300
-2.653061 -4.285714 -0.009530 6579300
-2.653061 -3.877551 0.027902 6579300
-2.653061 -3.469388 0.060790 6579300
-2.653061 -3.061224 0.018661 6579300
-2.653061 -2.653061 -0.044643 6579300
-2.653061 -2.244898 0.019409 6579300
-2.653061 -1.836735 0.107363 6579300
-2.653061 -1.428571 -0.102652 6579300
-2.653061 -1.020408 0.013297 6579300
-2.653061 -0.612245 -0.070012 6579300
-2.653061 -0.204082 0.119505 6579300
-2.653061 0.204082 -0.152319 6579300
-2.653061 0.612245 -0.055892 6579300
-2.653061 1.020408 0.037721 6579300
-2.653061 1.428571 0.156552 6579300
-2.653061 1.836735 -0.006575 6579300
-2.653061 2.244898 -0.055520 6579300
-2.653061 2.653061 0.188116 6579300
-2.653061 3.061224 -0.144801 6579300
-2.653061 3.469388 -0.219881 6579300
-2.653061 3.877551 0.044001 6579300
-2.653061 4.285714 -0.050205 6579300
-2.653061 4.693878 -0.102123 6579300
-2.653061 5.102041 0.070836 6579300
-2.653061 5.510204 0.024380 6579300
-2.653061 5.918367 -0.056408 6579300
-2.653061 6.326531 -0.128030 6579300
-2.653061 6.734694 0.087246 6579300
-2.653061 7.142857 0.065020 6579300
-2.653061 7.551020 -0.009918 6579300
-2.653061 7.959184 0.184664 6579300
-2.653061 8.367347 -0.107008 6579300
-2.653061 8.775510 -0.152553 6579300
-2.653061 9.183673 -0.069191 6579300
-2.653061 9.591837 -0.004559 6579300
-2.653061 10.000000 0.024334 6579300
-2.244898 -10.000000 -0.024124 6579300
-2.244898 -9.591837 0.035206 6579300
-2.244898 -9.183673 -0.125154 6579300
-2.244898 -8.775510 0.144376 6579300
-2.244898 -8.367347 -0.008215 6579300
-2.244898 -7.959184 0.111730 6579300
-2.244898 -7.551020 0.034273 6579300
-2.244898 -7.142857 0.045675 6579300
-2.244898 -6.734694 0.056977 6579300
-2.244898 -6.326531 0.044771 6579300
-2.244898 -5.918367 0.064272 6579300
-2.244898 -5.510204 0.132915 6579300
-2.244898 -5.102041 0.019652 6579300
-2.244898 -4.693878 0.070900 6579300
-2.244898 -4.285714 -0.008974 6579300
-2.244898 -3.877551 0.144012 6579300
-2.244898 -3.469388 -0.067639 6579300
-2.244898 -3.061224 0.180094 6579300
-2.244898 -2.653061 -0.004016 6579300
-2.244898 -2.244898 -0.143078 6579300
-2.244898 -1.836735 0.012810 6579300
-2.244898 -1.428571 -0.068105 6579300
-2.244898 -1.020408 0.084064 6579300
-2.244898 -0.612245 -0.065262 6579300
-2.244898 -0.204082 -0.044618 6579300
-2.244898 0.204082 -0.188954 6579300
-2.244898 0.612245 -0.045231 6579300
-2.244898 1.020408 -0.242388 6579300
-2.244898 1.428571 -0.158390 6579300
-2.244898 1.836735 0.076041 6579300
-2.244898 2.244898 0.078580 6579300
-2.244898 2.653061 0.042546 6579300
-2.244898 3.061224 -0.096698 6579300
-2.244898 3.469388 -0.004771 6579300
-2.244898 3.877551 -0.000360 6579300
-2.244898 4.285714 -0.115836 6579300
-2.244898 4.693878 0.150340 6579300
-2.244898 5.102041 0.087736 6579300
-2.244898 5.510204 -0.022096 6579300
-2.244898 5.918367 0.002689 6579300
-2.244898 6.326531 0.020838 6579300
-2.244898 6.734694 -0.204173 6579300
-2.244898 7.142857 -0.024718 6579300
-2.244898 7.551020 -0.068198 6579300
-2.244898 7.959184 -0.100162 6579300
-2.244898 8.367347 -0.028110 6579300
-2.244898 8.775510 0.179769 6579300
-2.244898 9.183673 0.064084 6579300
-2.244898 9.591837 -0.057118 6579300
-2.244898 10.000000 0.057258 6579300
-1.836735 -10.000000 0.139936 6579300
-1.836735 -9.591837 0.092463 6579300
-1.836735 -9.183673 0.005963 6579300
-1.836735 -8.775510 -0.064694 6579300
-1.836735 -8.367347 0.069822 6579300
-1.836735 -7.959184 0.039349 6579300
-1.836735 -7.551020 0.089519 6579300
-1.836735 -7.142857 0.063517 6579300
-1.836735 -6.734694 0.104955 6579300
-1.836735 -6.326531 -0.053524 6579300
-1.836735 -5.918367 0.131739 6579300
-1.836735 -5.510204 0.019760 6579300
-1.836735 -5.102041 0.207526 6579300
-1.836735 -4.693878 -0.068919 6579300
-1.836735 -4.285714 0.173596 6579300
-1.836735 -3.877551 0.019791 6579300
-1.836735 -3.469388 -0.065142 6579300
-1.836735 -3.061224 -0.048389 6579300
-1.836735 -2.653061 -0.032035 6579300
-1.836735 -2.244898 0.042417 6579300
-1.836735 -1.836735 0.052284 6579300
-1.836735 -1.428571 -0.057370 6579300
-1.836735 -1.020408 -0.002435 6579300
-1.836735 -0.612245 0.214227 6579300
-1.836735 -0.204082 0.172754 6579300
-1.836735 0.204082 0.043632 6579300
-1.836735 0.612245 0.003800 6579300
-1.836735 1.020408 0.012003 6579300
-1.836735 1.428571 0.061352 6579300
-1.836735 1.836735 -0.102279 6579300
-1.836735 2.244898 -0.025738 6579300
-1.836735 2.653061 -0.166858 6579300
-1.836735 3.061224 0.039922 6579300
-1.836735 3.469388 0.064720 6579300
-1.836735 3.877551 -0.048319 6579300
-1.836735 4.285714 0.157399 6579300
-1.836735 4.693878 -0.122577 6579300
-1.836735 5.102041 -0.146437 6579300
-1.836735 5.510204 0.022445 6579300
-1.836735 5.918367 0.104710 6579300
-1.836735 6.326531 0.168393 6579300
-1.836735 6.734694 -0.045888 6579300
-1.836735 7.142857 0.107868 6579300
-1.836735 7.551020 -0.003851 6579300
-1.836735 7.959184 -0.017263 6579300
-1.836735 8.367347 0.088366 6579300
-1.836735 8.775510 0.065232 6579300
-1.836735 9.183673 -0.157639 6579300
-1.836735 9.591837 0.147654 6579300
-1.836735 10.000000 0.138009 6579300
-1.428571 -10.000000 -0.062556 6579300
-1.428571 -9.591837 0.039580 6579300
-1.428571 -9.183673 0.049403 6579300
-1.428571 -8.775510 0.026067 6579300
-1.428571 -8.367347 -0.055031 6579300
-1.428571 -7.959184 -0.067162 6579300
-1.428571 -7.551020 -0.002555 6579300
-1.428571 -7.142857 0.117273 6579300
-1.428571 -6.734694 0.054360 6579300
-1.428571 -6.326531 -0.037061 6579300
-1.428571 -5.918367 0.077170 6579300
-1.428571 -5.510204 -0.284854 6579300
-1.428571 -5.102041 0.114877 6579300
-1.428571 -4.693878 -0.173971 6579300
-1.428571 -4.285714 -0.036244 6579300
-1.428571 -3.877551 -0.111967 6579300
-1.428571 -3.469388 -0.129468 6579300
-1.428571 -3.061224 0.116083 6579300
-1.428571 -2.653061 -0.046770 6579300
-1.428571 -2.244898 0.034650 6579300
-1.428571 -1.836735 -0.004692 6579300
-1.428571 -1.428571 0.047704 6579300
-1.428571 -1.020408 0.007682 6579300
-1.428571 -0.612245 -0.128299 6579300
-1.428571 -0.204082 0.099627 6579300
-1.428571 0.204082 -0.049376 6579300
-1.428571 0.612245 -0.155658 6579300
-1.428571 1.020408 -0.042812 6579300
-1.428571 1.428571 0.150076 6579300
-1.428571 1.836735 0.085022 6579300
-1.428571 2.244898 -0.034865 6579300
-1.428571 2.653061 -0.034926 6579300
-1.428571 3.061224 -0.032164 6579300
-1.428571 3.469388 0.207675 6579300
-1.428571 3.877551 0.038194 6579300
-1.428571 4.285714 0.043004 6579300
-1.428571 4.693878 0.103028 6579300
-1.428571 5.102041 0.023879 6579300
-1.428571 5.510204 -0.025904 6579300
-1.428571 5.918367 -0.019635 6579300
-1.428571 6.326531 -0.007160 6579300
-1.428571 6.734694 -0.003722 6579300
-1.428571 7.142857 0.072763 6579300
-1.428571 7.551020 0.005195 6579300
-1.428571 7.959184 0.073264 6579300
-1.428571 8.367347 -0.008072 6579300
-1.428571 8.775510 0.007864 6579300
-1.428571 9.183673 -0.199820 6579300
-1.428571 9.591837 0.091633 6579300
-1.428571 10.000000 0.034649 6579300
-1.020408 -10.000000 0.099801 6579300
-1.020408 -9.591837 -0.289626 6579300
-1.020408 -9.183673 0.208837 6579300
-1.020408 -8.775510 -0.013959 6579300
-1.020408 -8.367347 0.110818 6579300
-1.020408 -7.959184 -0.103991 6579300
-1.020408 -7.551020 0.061277 6579300
-1.020408 -7.142857 -0.105342 6579300
-1.020408 -6.734694 -0.062377 6579300
-1.020408 -6.326531 0.191403 6579300
-1.020408 -5.918367 -0.019068 6579300
-1.020408 -5.510204 0.021743 6579300
-1.020408 -5.102041 0.087007 6579300
-1.020408 -4.693878 0.049568 6579300
-1.020408 -4.285714 0.015042 6579300
-1.020408 -3.877551 0.036496 6579300
-1.020408 -3.469388 0.240342 6579300
-1.020408 -3.061224 -0.005762 6579300
-1.020408 -2.653061 0.020110 6579300
-1.020408 -2.244898 0.105065 6579300
-1.020408 -1.836735 0.110553 6579300
-1.020408 -1.428571 0.118703 6579300
-1.020408 -1.020408 0.063873 6579300
-1.020408 -0.612245 -0.114300 6579300
-1.020408 -0.204082 0.163343 6579300
-1.020408 0.204082 -0.114635 6579300
-1.020408 0.612245 0.030264 6579300
-1.020408 1.020408 -0.075428 6579300
-1.020408 1.428571 -0.006414 6579300
-1.020408 1.836735 0.032876 6579300
-1.020408 2.244898 0.032136 6579300
-1.020408 2.653061 0.042192 6579300
-1.020408 3.061224 0.161371 6579300
-1.020408 3.469388 0.045353 6579300
-1.020408 3.877551 -0.024416 6579300
-1.020408 4.285714 0.096409 6579300
-1.020408 4.693878 0.118947 6579300
-1.020408 5.102041 -0.122761 6579300
-1.020408 5.510204 0.059740 6579300
-1.020408 5.918367 0.070117 6579300
-1.020408 6.326531 -0.029756 6579300
-1.020408 6.734694 0.137571 6579300
-1.020408 7.142857 -0.015006 6579300
-1.020408 7.551020 0.012558 6579300
-1.020408 7.959184 -0.017307 6579300
-1.020408 8.367347 0.001558 6579300
-1.020408 8.775510 -0.109628 6579300
-1.020408 9.183673 -0.144005 6579300
-1.020408 9.591837 0.159451 6579300
-1.020408 10.000000 -0.084696 6579300
-0.612245 -10.000000 -0.099139 6579300
-0.612245 -9.591837 -0.215339 6579300
-0.612245 -9.183673 -0.063896 6579300
-0.612245 -8.775510 -0.132309 6579300
-0.612245 -8.367347 0.164202 6579300
-0.612245 -7.959184 0.100982 6579300
-0.612245 -7.551020 -0.068815 6579300
-0.612245 -7.142857 0.225244 6579300
-0.612245 -6.734694 0.098177 6579300
-0.612245 -6.326531 -0.032483 6579300
-0.612245 -5.918367 -0.249941 6579300
-0.612245 -5.510204 0.229094 6579300
-0.612245 -5.102041 -0.138957 6579300
-0.612245 -4.693878 -0.164540 6579300
-0.612245 -4.285714 0.102257 6579300
-0.612245 -3.877551 0.243975 6579300
-0.612245 -3.469388 0.138427 6579300
-0.612245 -3.061224 0.056391 6579300
-0.612245 -2.653061 0.059475 6579300
-0.612245 -2.244898 0.085342 6579300
-0.612245 -1.836735 0.075893 6579300
-0.612245 -1.428571 0.028119 6579300
-0.612245 -1.020408 0.010420 6579300
-0.612245 -0.612245 -0.006259 6579300
-0.612245 -0.204082 -0.075396 6579300
-0.612245 0.204082 -0.028068 6579300
-0.612245 0.612245 -0.169296 6579300
-0.612245 1.020408 -0.009834 6579300
-0.612245 1.428571 -0.098859 6579300
-0.612245 1.836735 -0.110359 6579300
-0.612245 2.244898 0.017989 6579300
-0.612245 2.653061 0.139200 6579300
-0.612245 3.061224 0.091832 6579300
-0.612245 3.469388 -0.157050 6579300
-0.612245 3.877551 -0.098963 6579300
-0.612245 4.285714 0.094077 6579300
-0.612245 4.693878 -0.098249 6579300
-0.612245 5.102041 -0.022463 6579300
-0.612245 5.510204 0.055005 6579300
-0.612245 5.918367 -0.096834 6579300
-0.612245 6.326531 0.010538 6579300
-0.612245 6.734694 -0.133403 6579300
-0.612245 7.142857 -0.060137 6579300
-0.612245 7.551020 0.031978 6579300
-0.612245 7.959184 -0.159299 6579300
-0.612245 8.367347 0.044047 6579300
-0.612245 8.775510 -0.001964 6579300
-0.612245 9.183673 0.055249 6579300
-0.612245 9.591837 0.022391 6579300
-0.612245 10.000000 0.136414 6579300
-0.204082 -10.000000 0.012522 6579300
-0.204082 -9.591837 -0.042941 6579300
-0.204082 -9.183673 0.012230 6579300
-0.204082 -8.775510 0.054330 6579300
-0.204082 -8.367347 0.004886 6579300
-0.204082 -7.959184 0.004059 6579300
-0.204082 -7.551020 -0.070199 6579300
-0.204082 -7.142857 -0.066290 6579300
-0.204082 -6.734694 -0.140261 6579300
-0.204082 -6.326531 0.174958 6579300
-0.204082 -5.918367 -0.124386 6579300
-0.204082 -5.510204 -0.069291 6579300
-0.204082 -5.102041 -0.071841 6579300
-0.204082 -4.693878 0.089492 6579300
-0.204082 -4.285714 -0.029495 6579300
-0.204082 -3.877551 0.124774 6579300
-0.204082 -3.469388 -0.067349 6579300
-0.204082 -3.061224 0.027899 6579300
-0.204082 -2.653061 -0.083535 6579300
-0.204082 -2.244898 0.214515 6579300
-0.204082 -1.836735 -0.118760 6579300
-0.204082 -1.428571 0.030982 6579300
-0.204082 -1.020408 0.063378 6579300
-0.204082 -0.612245 0.041380 6579300
-0.204082 -0.204082 -0.018529 6579300
-0.204082 0.204082 -0.012982 6579300
-0.204082 0.612245 0.004381 6579300
-0.204082 1.020408 -0.014700 6579300
-0.204082 1.428571 0.096388 6579300
-0.204082 1.836735 0.221052 6579300
-0.204082 2.244898 -0.055749 6579300
-0.204082 2.653061 -0.136980 6579300
-0.204082 3.061224 -0.008828 6579300
-0.204082 3.469388 0.257971 6579300
-0.204082 3.877551 -0.080367 6579300
-0.204082 4.285714 0.163912 6579300
-0.204082 4.693878 0.167770 6579300
-0.204082 5.102041 -0.055359 6579300
-0.204082 5.510204 0.056898 6579300
-0.204082 5.918367 0.162840 6579300
-0.204082 6.326531 -0.037913 6579300
-0.204082 6.734694 -0.020358 6579300
-0.204082 7.142857 -0.058168 6579300
-0.204082 7.551020 -0.101476 6579300
-0.204082 7.959184 -0.064928 6579300
-0.204082 8.367347 -0.122394 6579300
-0.204082 8.775510 0.003408 6579300
-0.204082 9.183673 -0.076997 6579300
-0.204082 9.591837 0.023379 6579300
-0.204082 10.000000 -0.155590 6579300
0.204082 -10.000000 0.033088 6579300
0.204082 -9.591837 0.083353 6579300
0.204082 -9.183673 -0.199374 6579300
0.204082 -8.775510 0.037406 6579300
0.204082 -8.367347 0.122767 6579300
0.204082 -7.959184 -0.120964 6579300
0.204082 -7.551020 0.167257 6579300
0.204082 -7.142857 0.041902 6579300
0.204082 -6.734694 -0.070501 6579300
0.204082 -6.326531 -0.005577 6579300
0.204082 -5.918367 0.055833 6579300
0.204082 -5.510204 0.007601 6579300
0.204082 -5.102041 0.053876 6579300
0.204082 -4.693878 -0.092067 6579300
0.204082 -4.285714 0.016936 6579300
0.204082 -3.877551 -0.141371 6579300
0.204082 -3.469388 -0.011123 6579300
0.204082 -3.061224 -0.090391 6579300
0.204082 -2.653061 -0.073553 6579300
0.204082 -2.244898 0.123609 6579300
0.204082 -1.836735 0.109131 6579300
0.204082 -1.428571 0.060914 6579300
0.204082 -1.020408 -0.109231 6579300
0.204082 -0.612245 -0.031641 6579300
0.204082 -0.204082 0.121310 6579300
0.204082 0.204082 0.014172 6579300
0.204082 0.612245 0.231933 6579300
0.204082 1.020408 0.039332 6579300
0.204082 1.428571 0.019205 6579300
0.204082 1.836735 -0.030912 6579300
0.204082 2.244898 0.013354 6579300
0.204082 2.653061 -0.015247 6579300
0.204082 3.061224 0.070811 6579300
0.204082 3.469388 0.095670 6579300
0.204082 3.877551 -0.078599 6579300
0.204082 4.285714 -0.133123 6579300
0.204082 4.693878 -0.183621 6579300
0.204082 5.102041 0.050799 6579300
0.204082 5.510204 -0.110337 6579300
0.204082 5.918367 -0.215289 6579300
0.204082 6.326531 0.038858 6579300
0.204082 6.734694 0.249300 6579300
0.204082 7.142857 -0.000607 6579300
0.204082 7.551020 0.083849 6579300
0.204082 7.959184 0.008183 6579300
0.204082 8.367347 -0.009889 6579300
0.204082 8.775510 0.091908 6579300
0.204082 9.183673 -0.029027 6579300
0.204082 9.591837 0.026739 6579300
0.204082 10.000000 0.032170 6579300
0.612245 -10.000000 -0.066809 6579300
0.612245 -9.591837 0.099204 6579300
0.612245 -9.183673 -0.017496 6579300
0.612245 -8.775510 -0.075575 6579300
0.612245 -8.367347 0.053651 6579300
0.612245 -7.959184 -0.089847 6579300
0.612245 -7.551020 0.002818 6579300
0.612245 -7.142857 -0.000912 6579300
0.612245 -6.734694 0.108590 6579300
0.612245 -6.326531 0.047470 6579300
0.612245 -5.918367 -0.002503 6579300
0.612245 -5.510204 0.081777 6579300
0.612245 -5.102041 0.139021 6579300
0.612245 -4.693878 0.055781 6579300
0.612245 -4.285714 0.001035 6579300
0.612245 -3.877551 -0.131184 6579300
0.612245 -3.469388 -0.106511 6579300
0.612245 -3.061224 -0.030522 6579300
0.612245 -2.653061 -0.060951 6579300
0.612245 -2.244898 -0.018697 6579300
0.612245 -1.836735 0.005665 6579300
0.612245 -1.428571 0.052969 6579300
0.612245 -1.020408 -0.007050 6579300
0.612245 -0.612245 0.048650 6579300
0.612245 -0.204082 0.006447 6579300
0.612245 0.204082 -0.197547 6579300
0.612245 0.612245 -0.093934 6579300
0.612245 1.020408 -0.014409 6579300
0.612245 1.428571 -0.120969 6579300
0.612245 1.836735 0.059993 6579300
0.612245 2.244898 0.153075 6579300
0.612245 2.653061 0.121876 6579300
0.612245 3.061224 -0.021344 6579300
0.612245 3.469388 0.149073 6579300
0.612245 3.877551 0.014867 6579300
0.612245 4.285714 -0.033709 6579300
0.612245 4.693878 -0.061340 6579300
0.612245 5.102041 -0.030247 6579300
0.612245 5.510204 -0.038818 6579300
0.612245 5.918367 0.017042 6579300
0.612245 6.326531 0.016057 6579300
0.612245 6.734694 0.000305 6579300
0.612245 7.142857 0.043694 6579300
0.612245 7.551020 0.119065 6579300
0.612245 7.959184 0.094955 6579300
0.612245 8.367347 -0.148490 6579300
0.612245 8.775510 -0.255392 6579300
0.612245 9.183673 0.093432 6579300
0.612245 9.591837 -0.136688 6579300
0.612245 10.000000 -0.022477 6579300
1.020408 -10.000000 -0.117011 6579300
1.020408 -9.591837 -0.180198 6579300
1.020408 -9.183673 0.054146 6579300
1.020408 -8.775510 0.075916 6579300
1.020408 -8.367347 -0.057651 6579300
1.020408 -7.959184 -0.259104 6579300
1.020408 -7.551020 -0.054624 6579300
1.020408 -7.142857 0.039180 6579300
1.020408 -6.734694 -0.147891 6579300
1.020408 -6.326531 0.018336 6579300
1.020408 -5.918367 -0.001531 6579300
1.020408 -5.510204 0.057929 6579300
1.020408 -5.102041 0.011958 6579300
1.020408 -4.693878 -0.097307 6579300
1.020408 -4.285714 0.119657 6579300
1.020408 -3.877551 -0.015853 6579300
1.020408 -3.469388 -0.002730 6579300
1.020408 -3.061224 -0.093327 6579300
1.020408 -2.653061 -0.044328 6579300
1.020408 -2.244898 -0.088480 6579300
1.020408 -1.836735 -0.017295 6579300
1.020408 -1.428571 0.171171 6579300
1.020408 -1.020408 -0.137190 6579300
1.020408 -0.612245 -0.161356 6579300
1.020408 -0.204082 0.147117 6579300
1.020408 0.204082 -0.020932 6579300
1.020408 0.612245 -0.066907 6579300
1.020408 1.020408 0.103990 6579300
1.020408 1.428571 -0.060562 6579300
1.020408 1.836735 0.182601 6579300
1.020408 2.244898 0.067793 6579300
1.020408 2.653061 -0.048791 6579300
1.020408 3.061224 0.215731 6579300
1.020408 3.469388 -0.060571 6579300
1.020408 3.877551 0.074210 6579300
1.020408 4.285714 0.029929 6579300
1.020408 4.693878 0.130174 6579300
1.020408 5.102041 0.156151 6579300
1.020408 5.510204 0.003200 6579300
1.020408 5.918367 -0.075342 6579300
1.020408 6.326531 0.045997 6579300
1.020408 6.734694 -0.067772 6579300
1.020408 7.142857 0.201339 6579300
1.020408 7.551020 0.013654 6579300
1.020408 7.959184 -0.036532 6579300
1.020408 8.367347 0.018468 6579300
1.020408 8.775510 -0.134713 6579300
1.020408 9.183673 -0.097161 6579300
1.020408 9.591837 0.120041 6579300
1.020408 10.000000 -0.065689 6579300
1.428571 -10.000000 -0.104691 6579300
1.428571 -9.591837 0.053665 6579300
1.428571 -9.183673 0.118570 6579300
1.428571 -8.775510 0.071895 6579300
1.428571 -8.367347 0.099605 6579300
1.428571 -7.959184 -0.075680 6579300
1.428571 -7.551020 -0.142181 6579300
1.428571 -7.142857 0.150133 6579300
1.428571 -6.734694 -0.032268 6579300
1.428571 -6.326531 -0.025083 6579300
1.428571 -5.918367 0.132819 6579300
1.428571 -5.510204 0.055623 6579300
1.428571 -5.102041 0.045589 6579300
1.428571 -4.693878 0.216500 6579300
1.428571 -4.285714 -0.064352 6579300
1.428571 -3.877551 0.092784 6579300
1.428571 -3.469388 0.005701 6579300
1.428571 -3.061224 0.026859 6579300
1.428571 -2.653061 0.152847 6579300
1.428571 -2.244898 0.050784 6579300
1.428571 -1.836735 0.053830 6579300
1.428571 -1.428571 0.107251 6579300
1.428571 -1.020408 -0.036495 6579300
1.428571 -0.612245 -0.083921 6579300
1.428571 -0.204082 -0.104481 6579300
1.428571 0.204082 -0.196636 6579300
1.428571 0.612245 0.205621 6579300
1.428571 1.020408 -0.110321 6579300
1.428571 1.428571 -0.022125 6579300
1.428571 1.836735 -0.027681 6579300
1.428571 2.244898 0.030741 6579300
1.428571 2.653061 0.081574 6579300
1.428571 3.061224 0.086047 6579300
1.428571 3.469388 -0.058308 6579300
1.428571 3.877551 -0.016712 6579300
1.428571 4.285714 0.028258 6579300
1.428571 4.693878 -0.024869 6579300
1.428571 5.102041 0.160735 6579300
1.428571 5.510204 0.049097 6579300
1.428571 5.918367 0.073488 6579300
1.428571 6.326531 0.066288 6579300
1.428571 6.734694 0.117347 6579300
1.428571 7.142857 0.018102 6579300
1.428571 7.551020 -0.129683 6579300
1.428571 7.959184 0.039969 6579300
1.428571 8.367347 -0.065136 6579300
1.428571 8.775510 -0.052862 6579300
1.428571 9.183673 0.058636 6579300
1.428571 9.591837 0.123828 6579300
1.428571 10.000000 0.002127 6579300
1.836735 -10.000000 0.030883 6579300
1.836735 -9.591837 0.170221 6579300
1.836735 -9.183673 0.024075 6579300
1.836735 -8.775510 0.260168 6579300
1.836735 -8.367347 0.056551 6579300
1.836735 -7.959184 -0.176076 6579300
1.836735 -7.551020 0.075334 6579300
1.836735 -7.142857 0.038116 6579300
1.836735 -6.734694 0.128975 6579300
1.836735 -6.326531 0.067318 6579300
1.836735 -5.918367 -0.013846 6579300
1.836735 -5.510204 -0.122430 6579300
1.836735 -5.102041 -0.020902 6579300
1.836735 -4.693878 -0.085052 6579300
1.836735 -4.285714 -0.058052 6579300
1.836735 -3.877551 0.058858 6579300
1.836735 -3.469388 0.166990 6579300
1.836735 -3.061224 0.039467 6579300
1.836735 -2.653061 -0.119588 6579300
1.836735 -2.244898 0.044460 6579300
1.836735 -1.836735 0.119663 6579300
1.836735 -1.428571 -0.060978 6579300
1.836735 -1.020408 -0.013402 6579300
1.836735 -0.612245 0.001469 6579300
1.836735 -0.204082 -0.078490 6579300
1.836735 0.204082 0.064828 6579300
1.836735 0.612245 -0.012095 6579300
1.836735 1.020408 0.041953 6579300
1.836735 1.428571 -0.088749 6579300
1.836735 1.836735 -0.043746 6579300
1.836735 2.244898 0.072238 6579300
1.836735 2.653061 -0.037283 6579300
1.836735 3.061224 0.172696 6579300
1.836735 3.469388 -0.039964 6579300
1.836735 3.877551 0.022468 6579300
1.836735 4.285714 0.093259 6579300
1.836735 4.693878 -0.141837 6579300
1.836735 5.102041 -0.176081 6579300
1.836735 5.510204 -0.152566 6579300
1.836735 5.918367 0.126258 6579300
1.836735 6.326531 -0.055186 6579300
1.836735 6.734694 0.255820 6579300
1.836735 7.142857 -0.056425 6579300
1.836735 7.551020 0.018455 6579300
1.836735 7.959184 0.154211 6579300
1.836735 8.367347 0.200609 6579300
1.836735 8.775510 0.206150 6579300
1.836735 9.183673 0.120837 6579300
1.836735 9.591837 0.102406 6579300
1.836735 10.000000 0.059253 6579300
2.244898 -10.000000 0.077836 6579300
2.244898 -9.591837 -0.055119 6579300
2.244898 -9.183673 -0.081820 6579300
2.244898 -8.775510 -0.000337 6579300
2.244898 -8.367347 -0.017018 6579300
2.244898 -7.959184 -0.045323 6579300
2.244898 -7.551020 0.069639 6579300
2.244898 -7.142857 0.095531 6579300
2.244898 -6.734694 0.008841 6579300
2.244898 -6.326531 0.147753 6579300
2.244898 -5.918367 -0.114169 6579300
2.244898 -5.510204 -0.019366 6579300
2.244898 -5.102041 -0.071682 6579300
2.244898 -4.693878 -0.186654 6579300
2.244898 -4.285714 -0.008268 6579300
2.244898 -3.877551 -0.012175 6579300
2.244898 -3.469388 0.151345 6579300
2.244898 -3.061224 0.063081 6579300
2.244898 -2.653061 -0.102419 6579300
2.244898 -2.244898 0.185409 6579300
2.244898 -1.836735 0.122103 6579300
2.244898 -1.428571 0.058210 6579300
2.244898 -1.020408 -0.022648 6579300
2.244898 -0.612245 -0.095944 6579300
2.244898 -0.204082 -0.037221 6579300
2.244898 0.204082 0.108875 6579300
2.244898 0.612245 0.188459 6579300
2.244898 1.020408 0.154324 6579300
2.244898 1.428571 -0.048885 6579300
2.244898 1.836735 -0.111962 6579300
2.244898 2.244898 0.014089 6579300
2.244898 2.653061 -0.176844 6579300
2.244898 3.061224 0.032317 6579300
2.244898 3.469388 -0.014760 6579300
2.244898 3.877551 -0.046604 6579300
2.244898 4.285714 -0.159470 6579300
2.244898 4.693878 0.051360 6579300
2.244898 5.102041 -0.053270 6579300
2.244898 5.510204 -0.116992 6579300
2.244898 5.918367 -0.287226 6579300
2.244898 6.326531 -0.002751 6579300
2.244898 6.734694 0.177225 6579300
2.244898 7.142857 0.166126 6579300
2.244898 7.551020 -0.045710 6579300
2.244898 7.959184 -0.060221 6579300
2.244898 8.367347 0.046877 6579300
2.244898 8.775510 -0.099839 6579300
2.244898 9.183673 0.030179 6579300
2.244898 9.591837 0.076608 6579300
2.244898 10.000000 0.122693 6579300
2.653061 -10.000000 -0.010015 6579300
2.653061 -9.591837 -0.020367 6579300
2.653061 -9.183673 -0.087798 6579300
2.653061 -8.775510 -0.082688 6579300
2.653061 -8.367347 -0.022648 6579300
2.653061 -7.959184 0.036737 6579300
2.653061 -7.551020 0.091358 6579300
2.653061 -7.142857 -0.080318 6579300
2.653061 -6.734694 0.149269 6579300
2.653061 -6.326531 -0.027112 6579300
2.653061 -5.918367 -0.002137 6579300
2.653061 -5.510204 -0.074721 6579300
2.653061 -5.102041 -0.242424 6579300
2.653061 -4.693878 0.088405 6579300
2.653061 -4.285714 0.073684 6579300
2.653061 -3.877551 -0.028133 6579300
2.653061 -3.469388 0.006699 6579300
2.653061 -3.061224 0.051594 6579300
2.653061 -2.653061 -0.156255 6579300
2.653061 -2.244898 -0.052905 6579300
2.653061 -1.836735 0.079426 6579300
2.653061 -1.428571 -0.125429 6579300
2.653061 -1.020408 0.029356 6579300
2.653061 -0.612245 -0.135658 6579300
2.653061 -0.204082 0.046643 6579300
2.653061 0.204082 -0.003564 6579300
2.653061 0.612245 -0.161513 6579300
2.653061 1.020408 0.116474 6579300
2.653061 1.428571 -0.073459 6579300
2.653061 1.836735 -0.081025 6579300
2.653061 2.244898 0.020057 6579300
2.653061 2.653061 0.114864 6579300
2.653061 3.061224 -0.101582 6579300
2.653061 3.469388 0.006168 6579300
2.653061 3.877551 0.042882 6579300
2.653061 4.285714 0.069311 6579300
2.653061 4.693878 0.017644 6579300
2.653061 5.102041 -0.036703 6579300
2.653061 5.510204 -0.082759 6579300
2.653061 5.918367 0.008614 6579300
2.653061 6.326531 -0.107214 6579300
2.653061 6.734694 -0.292135 6579300
2.653061 7.142857 0.043656 6579300
2.653061 7.551020 0.090393 6579300
2.653061 7.959184 -0.236293 6579300
2.653061 8.367347 -0.100973 6579300
2.653061 8.775510 0.061915 6579300
2.653061 9.183673 0.205750 6579300
2.653061 9.591837 0.002079 6579300
2.653061 10.000000 -0.072800 6579300
3.061224 -10.000000 -0.018290 6579300
3.061224 -9.591837 0.137488 6579300
3.061224 -9.183673 -0.064596 6579300
3.061224 -8.775510 -0.079919 6579300
3.061224 -8.367347 -0.048274 6579300
3.061224 -7.959184 -0.095333 6579300
3.061224 -7.551020 0.012267 6579300
3.061224 -7.142857 0.162468 6579300
3.061224 -6.734694 0.032308 6579300
3.061224 -6.326531 -0.025235 6579300
3.061224 -5.918367 -0.029181 6579300
3.061224 -5.510204 -0.156319 6579300
3.061224 -5.102041 0.088311 6579300
3.061224 -4.693878 -0.007784 6579300
3.061224 -4.285714 -0.018048 6579300
3.061224 -3.877551 0.319311 6579300
3.061224 -3.469388 0.029875 6579300
3.061224 -3.061224 -0.075179 6579300
3.061224 -2.653061 -0.042636 6579300
3.061224 -2.244898 0.114845 6579300
3.061224 -1.836735 0.011327 6579300
3.061224 -1.428571 -0.143828 6579300
3.061224 -1.020408 0.091923 6579300
3.061224 -0.612245 -0.066814 6579300
3.061224 -0.204082 0.187330 6579300
3.061224 0.204082 0.108005 6579300
3.061224 0.612245 -0.044732 6579300
3.061224 1.020408 0.128102 6579300
3.061224 1.428571 0.006786 6579300
3.061224 1.836735 0.085277 6579300
3.061224 2.244898 0.048473 6579300
3.061224 2.653061 -0.084636 6579300
3.061224 3.061224 -0.064355 6579300
3.061224 3.469388 0.102996 6579300
3.061224 3.877551 -0.033478 6579300
3.061224 4.285714 -0.040365 6579300
3.061224 4.693878 -0.095512 6579300
3.061224 5.102041 0.042360 6579300
3.061224 5.510204 0.206252 6579300
3.061224 5.918367 -0.106753 6579300
3.061224 6.326531 0.002422 6579300
3.061224 6.734694 0.141222 6579300
3.061224 7.142857 -0.007964 6579300
3.061224 7.551020 0.045237 6579300
3.061224 7.959184 -0.106239 6579300
3.061224 8.367347 0.042831 6579300
3.061224 8.775510 -0.018714 6579300
3.061224 9.183673 0.098573 6579300
3.061224 9.591837 0.118739 6579300
3.061224 10.000000 0.258956 6579300
3.469388 -10.000000 0.057963 6579300
3.469388 -9.591837 0.032580 6579300
3.469388 -9.183673 0.019438 6579300
3.469388 -8.775510 -0.035317 6579300
3.469388 -8.367347 0.033848 6579300
3.469388 -7.959184 -0.029540 6579300
3.469388 -7.551020 0.016846 6579300
3.469388 -7.142857 0.131760 6579300
3.469388 -6.734694 -0.100654 6579300
3.469388 -6.326531 0.113988 6579300
3.469388 -5.918367 0.131712 6579300
3.469388 -5.510204 -0.011807 6579300
3.469388 -5.102041 -0.212185 6579300
3.469388 -4.693878 -0.060782 6579300
3.469388 -4.285714 0.129699 6579300
3.469388 -3.877551 -0.002287 6579300
3.469388 -3.469388 -0.099930 6579300
3.469388 -3.061224 -0.050477 6579300
3.469388 -2.653061 0.084062 6579300
3.469388 -2.244898 0.054673 6579300
3.469388 -1.836735 -0.023893 6579300
3.469388 -1.428571 -0.036682 6579300
3.469388 -1.020408 -0.039176 6579300
3.469388 -0.612245 -0.092241 6579300
3.469388 -0.204082 0.161538 6579300
3.469388 0.204082 -0.032232 6579300
3.469388 0.612245 0.121716 6579300
3.469388 1.020408 0.152132 6579300
3.469388 1.428571 0.099831 6579300
3.469388 1.836735 -0.043162 6579300
3.469388 2.244898 0.040373 6579300
3.469388 2.653061 -0.002420 6579300
3.469388 3.061224 -0.090370 6579300
3.469388 3.469388 0.032436 6579300
3.469388 3.877551 -0.117904 6579300
3.469388 4.285714 0.118768 6579300
3.469388 4.693878 -0.046462 6579300
3.469388 5.102041 0.020116 6579300
3.469388 5.510204 0.028329 6579300
3.469388 5.918367 -0.025890 6579300
3.469388 6.326531 0.058669 6579300
3.469388 6.734694 -0.047490 6579300
3.469388 7.142857 0.087130 6579300
3.469388 7.551020 -0.134598 6579300
3.469388 7.959184 0.012638 6579300
3.469388 8.367347 0.193893 6579300
3.469388 8.775510 -0.100033 6579300
3.469388 9.183673 -0.067774 6579300
3.469388 9.591837 0.051391 6579300
3.469388 10.000000 0.017958 6579300
3.877551 -10.000000 0.035063 6579300
3.877551 -9.591837 0.048919 6579300
3.877551 -9.183673 0.063472 6579300
3.877551 -8.775510 0.110970 6579300
3.877551 -8.367347 0.040982 6579300
3.877551 -7.959184 -0.024126 6579300
3.877551 -7.551020 0.067257 6579300
3.877551 -7.142857 0.189988 6579300
3.877551 -6.734694 -0.013263 6579300
3.877551 -6.326531 -0.097453 6579300
3.877551 -5.918367 0.110708 6579300
3.877551 -5.510204 -0.012038 6579300
3.877551 -5.102041 -0.217267 6579300
3.877551 -4.693878 0.084742 6579300
3.877551 -4.285714 -0.053533 6579300
3.877551 -3.877551 -0.009053 6579300
3.877551 -3.469388 0.033198 6579300
3.877551 -3.061224 0.019050 6579300
3.877551 -2.653061 0.070945 6579300
3.877551 -2.244898 -0.043549 6579300
3.877551 -1.836735 0.051311 6579300
3.877551 -1.428571 -0.025955 6579300
3.877551 -1.020408 0.073881 6579300
3.877551 -0.612245 0.061537 6579300
3.877551 -0.204082 -0.093544 6579300
3.877551 0.204082 0.108598 6579300
3.877551 0.612245 -0.053596 6579300
3.877551 1.020408 0.080806 6579300
3.877551 1.428571 0.036729 6579300
3.877551 1.836735 0.183818 6579300
3.877551 2.244898 -0.022347 6579300
3.877551 2.653061 -0.034932 6579300
3.877551 3.061224 -0.001942 6579300
3.877551 3.469388 -0.030318 6579300
3.877551 3.877551 0.079994 6579300
3.877551 4.285714 -0.161631 6579300
3.877551 4.693878 -0.105368 6579300
3.877551 5.102041 -0.106780 6579300
3.877551 5.510204 0.095031 6579300
3.877551 5.918367 0.171061 6579300
3.877551 6.326531 -0.010445 6579300
3.877551 6.734694 -0.016882 6579300
3.877551 7.142857 0.007005 6579300
3.877551 7.551020 0.116188 6579300
3.877551 7.959184 -0.092735 6579300
3.877551 8.367347 0.023837 6579300
3.877551 8.775510 0.097520 6579300
3.877551 9.183673 0.050109 6579300
3.877551 9.591837 0.018958 6579300
3.877551 10.000000 0.100105 6579300
4.285714 -10.000000 -0.270323 6579300
4.285714 -9.591837 0.067788 6579300
4.285714 -9.183673 -0.065408 6579300
4.285714 -8.775510 -0.183063 6579300
4.285714 -8.367347 0.051120 6579300
4.285714 -7.959184 0.137366 6579300
4.285714 -7.551020 -0.013745 6579300
4.285714 -7.142857 0.095287 6579300
4.285714 -6.734694 0.161228 6579300
4.285714 -6.326531 0.131491 6579300
4.285714 -5.918367 0.163996 6579300
4.285714 -5.510204 0.074213 6579300
4.285714 -5.102041 0.007543 6579300
4.285714 -4.693878 -0.160197 6579300
4.285714 -4.285714 -0.024606 6579300
4.285714 -3.877551 -0.084325 6579300
4.285714 -3.469388 0.217094 6579300
4.285714 -3.061224 -0.017589 6579300
4.285714 -2.653061 0.012320 6579300
4.285714 -2.244898 0.055149 6579300
4.285714 -1.836735 0.004360 6579300
4.285714 -1.428571 0.169505 6579300
4.285714 -1.020408 -0.062265 6579300
4.285714 -0.612245 0.019461 6579300
4.285714 -0.204082 -0.074247 6579300
4.285714 0.204082 -0.132002 6579300
4.285714 0.612245 -0.061177 6579300
4.285714 1.020408 -0.003704 6579300
4.285714 1.428571 -0.042930 6579300
4.285714 1.836735 -0.069242 6579300
4.285714 2.244898 -0.140632 6579300
4.285714 2.653061 -0.008311 6579300
4.285714 3.061224 -0.150472 6579300
4.285714 3.469388 0.076006 6579300
4.285714 3.877551 0.008244 6579300
4.285714 4.285714 -0.145755 6579300
4.285714 4.693878 -0.030921 6579300
4.285714 5.102041 -0.075216 6579300
4.285714 5.510204 0.031917 6579300
4.285714 5.918367 0.134045 6579300
4.285714 6.326531 -0.187517 6579300
4.285714 6.734694 0.011503 6579300
4.285714 7.142857 -0.016013 6579300
4.285714 7.551020 0.067134 6579300
4.285714 7.959184 0.021320 6579300
4.285714 8.367347 -0.075197 6579300
4.285714 8.775510 -0.031905 6579300
4.285714 9.183673 -0.079603 6579300
4.285714 9.591837 0.107601 6579300
4.285714 10.000000 0.002131 6579300
4.693878 -10.000000 0.190119 6579300
4.693878 -9.591837 -0.006066 6579300
4.693878 -9.183673 -0.070841 6579300
4.693878 -8.775510 -0.151371 6579300
4.693878 -8.367347 -0.180314 6579300
4.693878 -7.959184 -0.158414 6579300
4.693878 -7.551020 0.026713 6579300
4.693878 -7.142857 0.050873 6579300
4.693878 -6.734694 -0.158119 6579300
4.693878 -6.326531 0.089504 6579300
4.693878 -5.918367 -0.048306 6579300
4.693878 -5.510204 0.014679 6579300
4.693878 -5.102041 0.161222 6579300
4.693878 -4.693878 0.089684 6579300
4.693878 -4.285714 -0.026853 6579300
4.693878 -3.877551 -0.089119 6579300
4.693878 -3.469388 -0.215182 6579300
4.693878 -3.061224 -0.071915 6579300
4.693878 -2.653061 -0.021113 6579300
4.693878 -2.244898 -0.098718 6579300
4.693878 -1.836735 -0.013126 6579300
4.693878 -1.428571 0.007685 6579300
4.693878 -1.020408 -0.022486 6579300
4.693878 -0.612245 -0.065000 6579300
4.693878 -0.204082 0.016865 6579300
4.693878 0.204082 0.044194 6579300
4.693878 0.612245 -0.109040 6579300
4.693878 1.020408 0.141093 6579300
4.693878 1.428571 -0.009859 6579300
4.693878 1.836735 0.001885 6579300
4.693878 2.244898 0.070821 6579300
4.693878 2.653061 0.023322 6579300
4.693878 3.061224 0.095314 6579300
4.693878 3.469388 0.028712 6579300
4.693878 3.877551 -0.061244 6579300
4.693878 4.285714 0.036150 6579300
4.693878 4.693878 -0.114373 6579300
4.693878 5.102041 0.010856 6579300
4.693878 5.510204 -0.003323 6579300
4.693878 5.918367 -0.020812 6579300
4.693878 6.326531 -0.012854 6579300
4.693878 6.734694 -0.188185 6579300
4.693878 7.142857 -0.054872 6579300
4.693878 7.551020 0.009284 6579300
4.693878 7.959184 0.015986 6579300
4.693878 8.367347 -0.102768 6579300
4.693878 8.775510 0.126571 6579300
4.693878 9.183673 -0.086617 6579300
4.693878 9.591837 0.096946 6579300
4.693878 10.000000 0.042719 6579300
5.102041 -10.000000 -0.064623 6579300
5.102041 -9.591837 0.177531 6579300
5.102041 -9.183673 -0.119364 6579300
5.102041 -8.775510 0.091915 6579300
5.102041 -8.367347 0.100058 6579300
5.102041 -7.959184 -0.067062 6579300
5.102041 -7.551020 0.139247 6579300
5.102041 -7.142857 -0.025005 6579300
5.102041 -6.734694 0.028869 6579300
5.102041 -6.326531 0.026032 6579300
5.102041 -5.918367 -0.013431 6579300
5.102041 -5.510204 0.081081 6579300
5.102041 -5.102041 0.079349 6579300
5.102041 -4.693878 -0.174853 6579300
5.102041 -4.285714 0.130434 6579300
5.102041 -3.877551 -0.166249 6579300
5.102041 -3.469388 0.103255 6579300
5.102041 -3.061224 0.112671 6579300
5.102041 -2.653061 -0.109097 6579300
5.102041 -2.244898 -0.041081 6579300
5.102041 -1.836735 -0.110570 6579300
5.102041 -1.428571 -0.021492 6579300
5.102041 -1.020408 -0.030803 6579300
5.102041 -0.612245 0.077966 6579300
5.102041 -0.204082 0.131031 6579300
5.102041 0.204082 0.139568 6579300
5.102041 0.612245 -0.056217 6579300
5.102041 1.020408 -0.020922 6579300
5.102041 1.428571 -0.168344 6579300
5.102041 1.836735 -0.080587 6579300
5.102041 2.244898 0.096485 6579300
5.102041 2.653061 0.161558 6579300
5.102041 3.061224 -0.123435 6579300
5.102041 3.469388 -0.059246 6579300
5.102041 3.877551 -0.002641 6579300
5.102041 4.285714 0.028016 6579300
5.102041 4.693878 -0.080960 6579300
5.102041 5.102041 0.042406 6579300
5.102041 5.510204 -0.047384 6579300
5.102041 5.918367 -0.001445 6579300
5.102041 6.326531 0.054628 6579300
5.102041 6.734694 0.000642 6579300
5.102041 7.142857 -0.043639 6579300
5.102041 7.551020 -0.010961 6579300
5.102041 7.959184 -0.008836 6579300
5.102041 8.367347 -0.037001 6579300
5.102041 8.775510 -0.025880 6579300
5.102041 9.183673 0.159865 6579300
5.102041 9.591837 0.056092 6579300
5.102041 10.000000 -0.029548 6579300
5.510204 -10.000000 0.069695 6579300
5.510204 -9.591837 -0.033382 6579300
5.510204 -9.183673 0.117312 6579300
5.510204 -8.775510 0.036964 6579300
5.510204 -8.367347 -0.010730 6579300
5.510204 -7.959184 0.044772 6579300
5.510204 -7.551020 -0.157088 6579300
5.510204 -7.142857 -0.112677 6579300
5.510204 -6.734694 -0.119393 6579300
5.510204 -6.326531 0.014294 6579300
5.510204 -5.918367 0.173251 6579300
5.510204 -5.510204 0.223130 6579300
5.510204 -5.102041 0.063805 6579300
5.510204 -4.693878 0.050084 6579300
5.510204 -4.285714 -0.180106 6579300
5.510204 -3.877551 -0.054267 6579300
5.510204 -3.469388 -0.078778 6579300
5.510204 -3.061224 -0.062085 6579300
5.510204 -2.653061 -0.016814 6579300
5.510204 -2.244898 -0.047209 6579300
5.510204 -1.836735 -0.197930 6579300
5.510204 -1.428571 0.074791 6579300
5.510204 -1.020408 -0.107274 6579300
5.510204 -0.612245 0.023925 6579300
5.510204 -0.204082 0.207408 6579300
5.510204 0.204082 -0.091938 6579300
5.510204 0.612245 -0.253029 6579300
5.510204 1.020408 -0.028600 6579300
5.510204 1.428571 0.110096 6579300
5.510204 1.836735 0.195835 6579300
5.510204 2.244898 -0.122955 6579300
5.510204 2.653061 0.049670 6579300
5.510204 3.061224 -0.046531 6579300
5.510204 3.469388 -0.010595 6579300
5.510204 3.877551 0.264434 6579300
5.510204 4.285714 -0.150297 6579300
5.510204 4.693878 0.025374 6579300
5.510204 5.102041 0.046769 6579300
5.510204 5.510204 0.108579 6579300
5.510204 5.918367 0.009798 6579300
5.510204 6.326531 0.030805 6579300
5.510204 6.734694 -0.039165 6579300
5.510204 7.142857 0.026913 6579300
5.510204 7.551020 -0.034319 6579300
5.510204 7.959184 0.062157 6579300
5.510204 8.367347 -0.036961 6579300
5.510204 8.775510 0.037710 6579300
5.510204 9.183673 -0.002926 6579300
5.510204 9.591837 0.112605 6579300
5.510204 10.000000 -0.005139 6579300
5.918367 -10.000000 -0.177303 6579300
5.918367 -9.591837 0.126192 6579300
5.918367 -9.183673 -0.090573 6579300
5.918367 -8.775510 -0.065377 6579300
5.918367 -8.367347 -0.059566 6579300
5.918367 -7.959184 0.137444 6579300
5.918367 -7.551020 -0.213567 6579300
5.918367 -7.142857 0.313775 6579300
5.918367 -6.734694 0.105606 6579300
5.918367 -6.326531 0.022324 6579300
5.918367 -5.918367 -0.005489 6579300
5.918367 -5.510204 0.028555 6579300
5.918367 -5.102041 0.052112 6579300
5.918367 -4.693878 0.064522 6579300
5.918367 -4.285714 0.055560 6579300
5.918367 -3.877551 0.008958 6579300
5.918367 -3.469388 -0.019734 6579300
5.918367 -3.061224 -0.015127 6579300
5.918367 -2.653061 -0.019491 6579300
5.918367 -2.244898 0.113377 6579300
5.918367 -1.836735 0.059356 6579300
5.918367 -1.428571 -0.294039 6579300
5.918367 -1.020408 0.065590 6579300
5.918367 -0.612245 0.019474 6579300
5.918367 -0.204082 -0.001871 6579300
5.918367 0.204082 -0.038852 6579300
5.918367 0.612245 0.112411 6579300
5.918367 1.020408 0.094753 6579300
5.918367 1.428571 -0.077288 6579300
5.918367 1.836735 0.040705 6579300
5.918367 2.244898 -0.097166 6579300
5.918367 2.653061 -0.137962 6579300
5.918367 3.061224 -0.062672 6579300
5.918367 3.469388 0.086239 6579300
5.918367 3.877551 0.095313 6579300
5.918367 4.285714 0.051309 6579300
5.918367 4.693878 0.072510 6579300
5.918367 5.102041 0.051618 6579300
5.918367 5.510204 -0.064148 6579300
5.918367 5.918367 0.043192 6579300
5.918367 6.326531 0.080041 6579300
5.918367 6.734694 0.075429 6579300
5.918367 7.142857 0.118891 6579300
5.918367 7.551020 0.070830 6579300
5.918367 7.959184 0.035145 6579300
5.918367 8.367347 0.107015 6579300
5.918367 8.775510 -0.002652 6579300
5.918367 9.183673 -0.088187 6579300
5.918367 9.591837 -0.016307 6579300
5.918367 10.000000 -0.074490 6579300
6.326531 -10.000000 -0.067518 6579300
6.326531 -9.591837 -0.014452 6579300
6.326531 -9.183673 -0.079242 6579300
6.326531 -8.775510 -0.030796 6579300
6.326531 -8.367347 -0.189361 6579300
6.326531 -7.959184 0.021329 6579300
6.326531 -7.551020 0.000121 6579300
6.326531 -7.142857 -0.081709 6579300
6.326531 -6.734694 0.065925 6579300
6.326531 -6.326531 0.093757 6579300
6.326531 -5.918367 -0.160756 6579300
6.326531 -5.510204 -0.076272 6579300
6.326531 -5.102041 -0.076914 6579300
6.326531 -4.693878 -0.093990 6579300
6.326531 -4.285714 0.082947 6579300
6.326531 -3.877551 -0.019383 6579300
6.326531 -3.469388 -0.026451 6579300
6.326531 -3.061224 -0.200386 6579300
6.326531 -2.653061 0.063542 6579300
6.326531 -2.244898 -0.123926 6579300
6.326531 -1.836735 0.005993 6579300
6.326531 -1.428571 0.027738 6579300
6.326531 -1.020408 0.136066 6579300
6.326531 -0.612245 -0.130882 6579300
6.326531 -0.204082 -0.301951 6579300
6.326531 0.204082 0.018385 6579300
6.326531 0.612245 0.180051 6579300
6.326531 1.020408 0.123895 6579300
6.326531 1.428571 0.020966 6579300
6.326531 1.836735 -0.049164 6579300
6.326531 2.244898 0.080712 6579300
6.326531 2.653061 -0.097355 6579300
6.326531 3.061224 0.047636 6579300
6.326531 3.469388 0.050547 6579300
6.326531 3.877551 0.106021 6579300
6.326531 4.285714 0.275966 6579300
6.326531 4.693878 0.039242 6579300
6.326531 5.102041 -0.050896 6579300
6.326531 5.510204 -0.002557 6579300
6.326531 5.918367 -0.176908 6579300
6.326531 6.326531 -0.069471 6579300
6.326531 6.734694 -0.040928 6579300
6.326531 7.142857 -0.052409 6579300
6.326531 7.551020 0.015235 6579300
6.326531 7.959184 -0.082242 6579300
6.326531 8.367347 0.112103 6579300
6.326531 8.775510 0.000021 6579300
6.326531 9.183673 -0.000930 6579300
6.326531 9.591837 -0.032789 6579300
6.326531 10.000000 0.015519 6579300
6.734694 -10.000000 0.082510 6579300
6.734694 -9.591837 -0.086713 6579300
6.734694 -9.183673 -0.065812 6579300
6.734694 -8.775510 -0.030373 6579300
6.734694 -8.367347 -0.134587 6579300
6.734694 -7.959184 -0.081926 6579300
6.734694 -7.551020 -0.047622 6579300
6.734694 -7.142857 0.087439 6579300
6.734694 -6.734694 0.026256 6579300
6.734694 -6.326531 0.019359 6579300
6.734694 -5.918367 0.085090 6579300
6.734694 -5.510204 -0.013737 6579300
6.734694 -5.102041 0.039046 6579300
6.734694 -4.693878 -0.010322 6579300
6.734694 -4.285714 0.026536 6579300
6.734694 -3.877551 -0.058276 6579300
6.734694 -3.469388 -0.243882 6579300
6.734694 -3.061224 -0.013428 6579300
6.734694 -2.653061 0.142275 6579300
6.734694 -2.244898 0.092622 6579300
6.734694 -1.836735 0.096540 6579300
6.734694 -1.428571 0.123613 6579300
6.734694 -1.020408 0.008866 6579300
6.734694 -0.612245 0.019732 6579300
6.734694 -0.204082 -0.061765 6579300
6.734694 0.204082 -0.031607 6579300
6.734694 0.612245 0.061577 6579300
6.734694 1.020408 0.120388 6579300
6.734694 1.428571 -0.013945 6579300
6.734694 1.836735 -0.045019 6579300
6.734694 2.244898 0.000053 6579300
6.734694 2.653061 0.060121 6579300
6.734694 3.061224 -0.144385 6579300
6.734694 3.469388 -0.229618 6579300
6.734694 3.877551 -0.055054 6579300
6.734694 4.285714 -0.122071 6579300
6.734694 4.693878 -0.050814 6579300
6.734694 5.102041 -0.014778 6579300
6.734694 5.510204 -0.045325 6579300
6.734694 5.918367 0.145247 6579300
6.734694 6.326531 0.032674 6579300
6.734694 6.734694 0.030047 6579300
6.734694 7.142857 0.062221 6579300
6.734694 7.551020 -0.113883 6579300
6.734694 7.959184 0.103911 6579300
6.734694 8.367347 -0.007576 6579300
6.734694 8.775510 0.067048 6579300
6.734694 9.183673 -0.107186 6579300
6.734694 9.591837 -0.155376 6579300
6.734694 10.000000 0.081789 6579300
7.142857 -10.000000 0.037641 6579300
7.142857 -9.591837 -0.090205 6579300
7.142857 -9.183673 -0.086966 6579300
7.142857 -8.775510 0.112543 6579300
7.142857 -8.367347 -0.118941 6579300
7.142857 -7.959184 0.164267 6579300
7.142857 -7.551020 -0.090062 6579300
7.142857 -7.142857 0.063839 6579300
7.142857 -6.734694 -0.032862 6579300
7.142857 -6.326531 0.060319 6579300
7.142857 -5.918367 -0.054411 6579300
7.142857 -5.510204 -0.016279 6579300
7.142857 -5.102041 0.004092 6579300
7.142857 -4.693878 -0.100219 6579300
7.142857 -4.285714 0.074082 6579300
7.142857 -3.877551 -0.051321 6579300
7.142857 -3.469388 -0.022860 6579300
7.142857 -3.061224 -0.099435 6579300
7.142857 -2.653061 -0.256233 6579300
7.142857 -2.244898 -0.019103 6579300
7.142857 -1.836735 0.241262 6579300
7.142857 -1.428571 0.078460 6579300
7.142857 -1.020408 -0.001926 6579300
7.142857 -0.612245 -0.026289 6579300
7.142857 -0.204082 0.002247 6579300
7.142857 0.204082 0.054712 6579300
7.142857 0.612245 -0.118081 6579300
7.142857 1.020408 0.111432 6579300
7.142857 1.428571 0.071538 6579300
7.142857 1.836735 0.071819 6579300
7.142857 2.244898 0.043848 6579300
7.142857 2.653061 0.001962 6579300
7.142857 3.061224 0.067286 6579300
7.142857 3.469388 0.059181 6579300
7.142857 3.877551 -0.035404 6579300
7.142857 4.285714 -0.057360 6579300
7.142857 4.693878 0.010186 6579300
7.142857 5.102041 0.154902 6579300
7.142857 5.510204 -0.123911 6579300
7.142857 5.918367 -0.146753 6579300
7.142857 6.326531 0.016476 6579300
7.142857 6.734694 0.005089 6579300
7.142857 7.142857 0.017334 6579300
7.142857 7.551020 0.024395 6579300
7.142857 7.959184 -0.022320 6579300
7.142857 8.367347 0.148986 6579300
7.142857 8.775510 -0.160090 6579300
7.142857 9.183673 -0.082850 6579300
7.142857 9.591837 -0.010325 6579300
7.142857 10.000000 -0.164319 6579300
7.551020 -10.000000 -0.017585 6579300
7.551020 -9.591837 0.166147 6579300
7.551020 -9.183673 0.002089 6579300
7.551020 -8.775510 0.023070 6579300
7.551020 -8.367347 -0.126016 6579300
7.551020 -7.959184 -0.061636 6579300
7.551020 -7.551020 -0.037520 6579300
7.551020 -7.142857 -0.031772 6579300
7.551020 -6.734694 0.128164 6579300
7.551020 -6.326531 0.055769 6579300
7.551020 -5.918367 -0.111146 6579300
7.551020 -5.510204 0.024650 6579300
7.551020 -5.102041 0.049822 6579300
7.551020 -4.693878 0.114015 6579300
7.551020 -4.285714 0.158054 6579300
7.551020 -3.877551 -0.101509 6579300
